321125.52 405523.67 33.21
321125.52 405433.67 33.05
321125.52 405343.67 32.28
321125.52 405253.67 30.90
321125.52 405163.67 29.34
321125.52 405073.67 27.54
321125.52 404983.67 25.86
321125.52 404893.67 24.78
321125.52 404803.67 24.67
321125.52 404713.67 25.22
321125.52 404623.67 26.15
321125.52 404533.67 27.41
321125.52 404443.67 28.44
321125.52 404353.67 28.94
321125.52 404263.67 29.42
321125.52 404173.67 30.11
321125.52 404083.67 30.40
321125.52 403993.67 29.55
321125.52 403903.67 28.03
321125.52 403813.67 27.97
321125.52 403723.67 29.70
321125.52 403633.67 31.32
321125.52 403543.67 32.42
321125.52 403453.67 32.99
321125.52 403363.67 33.32
321125.52 403273.67 33.85
321125.52 403183.67 34.37
321125.52 403093.67 34.67
321125.52 403003.67 34.69
321125.52 402913.67 34.55
321125.52 402823.67 34.47
321125.52 402733.67 34.45
321125.52 402643.67 34.17
321125.52 402553.67 33.70
321125.52 402463.67 33.72
321125.52 402373.67 34.16
321125.52 402283.67 34.37
321125.52 402193.67 34.32
321125.52 402103.67 34.24
321125.52 402013.67 34.29
321125.52 401923.67 34.41
321125.52 401833.67 34.47
321125.52 401743.67 34.32
321125.52 401653.67 33.98
321125.52 401563.67 33.70
321125.52 401473.67 33.63
321125.52 401383.67 33.62
321125.52 401293.67 33.48
321125.52 401203.67 33.01
321125.52 401113.67 32.28
321125.52 401023.67 31.87
321125.52 400933.67 31.95
321125.52 400843.67 31.99
321125.52 400753.67 31.95
321125.52 400663.67 31.96
321125.52 400573.67 32.05
321125.52 400483.67 32.21
321125.52 400393.67 32.44
321125.52 400303.67 32.83
321125.52 400213.67 33.75
321125.52 400123.67 35.35
321125.52 400033.67 37.09
321125.52 399943.67 38.65
321125.52 399853.67 40.00
321125.52 399763.67 41.49
321125.52 399673.67 44.85
321125.52 399583.67 51.52
321125.52 399493.67 59.84
321125.52 399403.67 66.75
321125.52 399313.67 71.56
321125.52 399223.67 72.95
321125.52 399133.67 69.34
321125.52 399043.67 63.77
321125.52 398953.67 59.35
321125.52 398863.67 55.07
321125.52 398773.67 51.58
321125.52 398683.67 50.84
321125.52 398593.67 52.88
321125.52 398503.67 56.61
321125.52 398413.67 59.49
321125.52 398323.67 60.06
321125.52 398233.67 60.78
321125.52 398143.67 61.26
321125.52 398053.67 59.03
321125.52 397963.67 56.91
321125.52 397873.67 58.43
321125.52 397783.67 63.95
321125.52 397693.67 74.06
321125.52 397603.67 86.66
321125.52 397513.67 94.76
321125.52 397423.67 91.84
321125.52 397333.67 78.83
321125.52 397243.67 66.41
321125.52 397153.67 60.50
321125.52 397063.67 56.99
321125.52 396973.67 53.85
321125.52 396883.67 51.30
321125.52 396793.67 49.44
321125.52 396703.67 47.70
321125.52 396613.67 46.14
321125.52 396523.67 46.58
321125.52 396433.67 50.79
321125.52 396343.67 55.29
321125.52 396253.67 55.22
321125.52 396163.67 52.11
321125.52 396073.67 48.71
321125.52 395983.67 46.23
321125.52 395893.67 47.67
321125.52 395803.67 53.97
321125.52 395713.67 63.44
321125.52 395623.67 70.98
321125.52 395533.67 68.45
321125.52 395443.67 56.22
321125.52 395353.67 47.51
321125.52 395263.67 47.26
321125.52 395173.67 47.96
321125.52 395083.67 47.62
321125.52 394993.67 47.90
321125.52 394903.67 47.40
321125.52 394813.67 45.77
321125.52 394723.67 43.10
321125.52 394633.67 40.17
321125.52 394543.67 37.87
321125.52 394453.67 36.16
321125.52 394363.67 34.71
321125.52 394273.67 33.79
321125.52 394183.67 33.18
321125.52 394093.67 32.44
321125.52 394003.67 31.93
321125.52 393913.67 31.90
321125.52 393823.67 31.94
321125.52 393733.67 31.60
321125.52 393643.67 31.24
321125.52 393553.67 31.25
321125.52 393463.67 31.46
321125.52 393373.67 31.80
321125.52 393283.67 32.32
321125.52 393193.67 33.08
321125.52 393103.67 33.98
321125.52 393013.67 34.55
321125.52 392923.67 34.32
321125.52 392833.67 33.87
321125.52 392743.67 34.02
321125.52 392653.67 34.81
321125.52 392563.67 36.73
321125.52 392473.67 40.25
321125.52 392383.67 44.79
321125.52 392293.67 49.31
321125.52 392203.67 52.67
321125.52 392113.67 53.24
321125.52 392023.67 51.00
321125.52 391933.67 48.44
321125.52 391843.67 47.63
321125.52 391753.67 49.68
321125.52 391663.67 57.23
321125.52 391573.67 71.09
321125.52 391483.67 85.71
321125.52 391393.67 95.40
321125.52 391303.67 100.42
321125.52 391213.67 102.18
321125.52 391123.67 99.62
321125.52 391033.67 94.95
321125.52 390943.67 96.83
321125.52 390853.67 110.58
321125.52 390763.67 131.31
321125.52 390673.67 150.49
321125.52 390583.67 170.23
321125.52 390493.67 193.37
321125.52 390403.67 212.64
321125.52 390313.67 217.83
321125.52 390223.67 209.22
321125.52 390133.67 189.17
321125.52 390043.67 170.13
321125.52 389953.67 166.87
321125.52 389863.67 165.45
321125.52 389773.67 158.12
321125.52 389683.67 155.72
321125.52 389593.67 164.31
321125.52 389503.67 171.93
321125.52 389413.67 164.54
321125.52 389323.67 147.07
321125.52 389233.67 132.40
321125.52 389143.67 120.96
321125.52 389053.67 115.59
321125.52 388963.67 122.05
321125.52 388873.67 136.08
321125.52 388783.67 145.58
321125.52 388693.67 140.92
321125.52 388603.67 127.95
321125.52 388513.67 118.74
321125.52 388423.67 112.68
321125.52 388333.67 109.37
321125.52 388243.67 109.94
321125.52 388153.67 111.82
321125.52 388063.67 115.94
321125.52 387973.67 127.24
321125.52 387883.67 145.67
321125.52 387793.67 164.07
321125.52 387703.67 177.75
321125.52 387613.67 183.62
321125.52 387523.67 180.08
321125.52 387433.67 171.93
321125.52 387343.67 160.78
321125.52 387253.67 141.62
321125.52 387163.67 122.17
321125.52 387073.67 110.08
321125.52 386983.67 100.00
321125.52 386893.67 91.30
321125.52 386803.67 83.52
321125.52 386713.67 77.88
321125.52 386623.67 74.38
321125.52 386533.67 71.56
321125.52 386443.67 69.31
321125.52 386353.67 68.09
321125.52 386263.67 67.55
321125.52 386173.67 67.09
321125.52 386083.67 66.17
321125.52 385993.67 64.64
321125.52 385903.67 62.82
321125.52 385813.67 60.90
321125.52 385723.67 59.33
321125.52 385633.67 58.26
321125.52 385543.67 57.42
321125.52 385453.67 56.77
321125.52 385363.67 56.25
321125.52 385273.67 55.80
321125.52 385183.67 55.54
321125.52 385093.67 55.53
321125.52 385003.67 55.40
321125.52 384913.67 54.92
321125.52 384823.67 54.35
321125.52 384733.67 53.84
321125.52 384643.67 53.43
321125.52 384553.67 53.13
321125.52 384463.67 52.72
321125.52 384373.67 52.27
321125.52 384283.67 52.53
321125.52 384193.67 53.63
321125.52 384103.67 54.76
321125.52 384013.67 56.07
321125.52 383923.67 57.63
321125.52 383833.67 60.00
321125.52 383743.67 64.83
321125.52 383653.67 73.79
321125.52 383563.67 87.20
321125.52 383473.67 103.91
321125.52 383383.67 121.37
321125.52 383293.67 136.72
321125.52 383203.67 151.58
321125.52 383113.67 170.80
321125.52 383023.67 198.63
321125.52 382933.67 235.93
321125.52 382843.67 273.63
321125.52 382753.67 303.62
321125.52 382663.67 326.44
321125.52 382573.67 336.58
321125.52 382483.67 329.99
321125.52 382393.67 309.10
321125.52 382303.67 278.54
321125.52 382213.67 239.99
321125.52 382123.67 198.72
321125.52 382033.67 162.37
321125.52 381943.67 139.62
321125.52 381853.67 134.22
321125.52 381763.67 137.75
321125.52 381673.67 141.65
321125.52 381583.67 148.77
321125.52 381493.67 163.39
321125.52 381403.67 178.52
321125.52 381313.67 185.75
321125.52 381223.67 190.40
321125.52 381133.67 200.21
321125.52 381043.67 220.46
321125.52 380953.67 247.30
321125.52 380863.67 269.75
321125.52 380773.67 286.03
321125.52 380683.67 306.00
321125.52 380593.67 329.77
321125.52 380503.67 338.87
321125.52 380413.67 329.24
321125.52 380323.67 318.26
321125.52 380233.67 312.59
321125.52 380143.67 304.23
321125.52 380053.67 287.00
321125.52 379963.67 266.14
321125.52 379873.67 248.06
321125.52 379783.67 238.13
321125.52 379693.67 235.58
321125.52 379603.67 234.21
321125.52 379513.67 235.24
321125.52 379423.67 245.91
321125.52 379333.67 261.66
321125.52 379243.67 265.79
321125.52 379153.67 254.62
321125.52 379063.67 238.83
321125.52 378973.67 222.33
321125.52 378883.67 204.66
321125.52 378793.67 186.43
321215.52 406783.67 35.27
321215.52 406693.67 35.16
321215.52 406603.67 35.44
321215.52 406513.67 36.29
321215.52 406423.67 37.37
321215.52 406333.67 37.39
321215.52 406243.67 36.15
321215.52 406153.67 35.28
321215.52 406063.67 35.05
321215.52 405973.67 34.85
321215.52 405883.67 34.74
321215.52 405793.67 34.83
321215.52 405703.67 34.73
321215.52 405613.67 34.40
321215.52 405523.67 34.28
321215.52 405433.67 34.44
321215.52 405343.67 34.44
321215.52 405253.67 33.99
321215.52 405163.67 32.72
321215.52 405073.67 30.29
321215.52 404983.67 27.54
321215.52 404893.67 25.53
321215.52 404803.67 24.61
321215.52 404713.67 24.48
321215.52 404623.67 25.06
321215.52 404533.67 26.09
321215.52 404443.67 26.80
321215.52 404353.67 27.17
321215.52 404263.67 27.55
321215.52 404173.67 27.96
321215.52 404083.67 28.08
321215.52 403993.67 27.56
321215.52 403903.67 27.03
321215.52 403813.67 27.86
321215.52 403723.67 29.67
321215.52 403633.67 30.95
321215.52 403543.67 31.64
321215.52 403453.67 31.95
321215.52 403363.67 32.18
321215.52 403273.67 32.72
321215.52 403183.67 33.67
321215.52 403093.67 34.45
321215.52 403003.67 34.60
321215.52 402913.67 34.56
321215.52 402823.67 34.56
321215.52 402733.67 34.61
321215.52 402643.67 34.48
321215.52 402553.67 34.01
321215.52 402463.67 33.73
321215.52 402373.67 34.10
321215.52 402283.67 34.47
321215.52 402193.67 34.39
321215.52 402103.67 34.28
321215.52 402013.67 34.45
321215.52 401923.67 34.74
321215.52 401833.67 34.83
321215.52 401743.67 34.67
321215.52 401653.67 34.31
321215.52 401563.67 33.96
321215.52 401473.67 33.81
321215.52 401383.67 33.76
321215.52 401293.67 33.59
321215.52 401203.67 33.08
321215.52 401113.67 32.27
321215.52 401023.67 31.76
321215.52 400933.67 31.88
321215.52 400843.67 32.15
321215.52 400753.67 32.18
321215.52 400663.67 32.13
321215.52 400573.67 32.13
321215.52 400483.67 32.15
321215.52 400393.67 32.15
321215.52 400303.67 32.17
321215.52 400213.67 32.44
321215.52 400123.67 33.17
321215.52 400033.67 34.33
321215.52 399943.67 35.76
321215.52 399853.67 37.23
321215.52 399763.67 38.63
321215.52 399673.67 41.15
321215.52 399583.67 46.29
321215.52 399493.67 51.97
321215.52 399403.67 54.71
321215.52 399313.67 56.03
321215.52 399223.67 56.55
321215.52 399133.67 54.02
321215.52 399043.67 50.69
321215.52 398953.67 49.14
321215.52 398863.67 48.13
321215.52 398773.67 47.19
321215.52 398683.67 47.25
321215.52 398593.67 48.20
321215.52 398503.67 48.97
321215.52 398413.67 49.52
321215.52 398323.67 50.39
321215.52 398233.67 52.47
321215.52 398143.67 54.25
321215.52 398053.67 54.97
321215.52 397963.67 57.35
321215.52 397873.67 63.40
321215.52 397783.67 72.56
321215.52 397693.67 85.02
321215.52 397603.67 98.02
321215.52 397513.67 103.04
321215.52 397423.67 96.51
321215.52 397333.67 82.37
321215.52 397243.67 68.77
321215.52 397153.67 60.41
321215.52 397063.67 54.95
321215.52 396973.67 50.89
321215.52 396883.67 48.45
321215.52 396793.67 46.98
321215.52 396703.67 45.59
321215.52 396613.67 44.32
321215.52 396523.67 44.35
321215.52 396433.67 46.43
321215.52 396343.67 48.32
321215.52 396253.67 47.26
321215.52 396163.67 44.62
321215.52 396073.67 42.74
321215.52 395983.67 43.29
321215.52 395893.67 49.20
321215.52 395803.67 60.34
321215.52 395713.67 71.78
321215.52 395623.67 75.58
321215.52 395533.67 65.80
321215.52 395443.67 49.63
321215.52 395353.67 40.02
321215.52 395263.67 37.70
321215.52 395173.67 36.95
321215.52 395083.67 35.75
321215.52 394993.67 34.76
321215.52 394903.67 33.96
321215.52 394813.67 33.15
321215.52 394723.67 32.41
321215.52 394633.67 31.82
321215.52 394543.67 31.25
321215.52 394453.67 30.66
321215.52 394363.67 30.24
321215.52 394273.67 30.08
321215.52 394183.67 29.98
321215.52 394093.67 29.80
321215.52 394003.67 29.71
321215.52 393913.67 29.72
321215.52 393823.67 29.75
321215.52 393733.67 29.81
321215.52 393643.67 30.00
321215.52 393553.67 30.29
321215.52 393463.67 30.54
321215.52 393373.67 30.80
321215.52 393283.67 31.35
321215.52 393193.67 32.24
321215.52 393103.67 33.04
321215.52 393013.67 33.92
321215.52 392923.67 34.35
321215.52 392833.67 33.68
321215.52 392743.67 33.42
321215.52 392653.67 33.88
321215.52 392563.67 35.30
321215.52 392473.67 38.37
321215.52 392383.67 42.81
321215.52 392293.67 47.27
321215.52 392203.67 50.68
321215.52 392113.67 51.84
321215.52 392023.67 50.26
321215.52 391933.67 47.99
321215.52 391843.67 46.81
321215.52 391753.67 47.52
321215.52 391663.67 51.72
321215.52 391573.67 59.76
321215.52 391483.67 69.31
321215.52 391393.67 79.86
321215.52 391303.67 91.00
321215.52 391213.67 99.04
321215.52 391123.67 101.94
321215.52 391033.67 100.40
321215.52 390943.67 99.59
321215.52 390853.67 104.92
321215.52 390763.67 117.33
321215.52 390673.67 131.36
321215.52 390583.67 146.70
321215.52 390493.67 165.33
321215.52 390403.67 180.86
321215.52 390313.67 182.39
321215.52 390223.67 171.05
321215.52 390133.67 152.45
321215.52 390043.67 134.58
321215.52 389953.67 129.29
321215.52 389863.67 128.37
321215.52 389773.67 124.70
321215.52 389683.67 124.00
321215.52 389593.67 130.95
321215.52 389503.67 141.19
321215.52 389413.67 142.82
321215.52 389323.67 130.23
321215.52 389233.67 114.13
321215.52 389143.67 103.73
321215.52 389053.67 99.58
321215.52 388963.67 102.38
321215.52 388873.67 110.77
321215.52 388783.67 117.42
321215.52 388693.67 115.77
321215.52 388603.67 107.87
321215.52 388513.67 101.22
321215.52 388423.67 97.64
321215.52 388333.67 97.12
321215.52 388243.67 97.63
321215.52 388153.67 96.42
321215.52 388063.67 97.55
321215.52 387973.67 108.55
321215.52 387883.67 129.12
321215.52 387793.67 150.51
321215.52 387703.67 166.50
321215.52 387613.67 171.97
321215.52 387523.67 165.59
321215.52 387433.67 153.80
321215.52 387343.67 141.80
321215.52 387253.67 127.47
321215.52 387163.67 115.20
321215.52 387073.67 108.75
321215.52 386983.67 101.84
321215.52 386893.67 93.50
321215.52 386803.67 84.94
321215.52 386713.67 78.81
321215.52 386623.67 74.83
321215.52 386533.67 71.86
321215.52 386443.67 69.73
321215.52 386353.67 68.42
321215.52 386263.67 67.48
321215.52 386173.67 66.51
321215.52 386083.67 65.00
321215.52 385993.67 63.04
321215.52 385903.67 61.30
321215.52 385813.67 59.89
321215.52 385723.67 58.93
321215.52 385633.67 58.22
321215.52 385543.67 57.22
321215.52 385453.67 56.10
321215.52 385363.67 55.39
321215.52 385273.67 54.86
321215.52 385183.67 54.44
321215.52 385093.67 54.25
321215.52 385003.67 54.06
321215.52 384913.67 53.72
321215.52 384823.67 53.21
321215.52 384733.67 52.59
321215.52 384643.67 52.08
321215.52 384553.67 51.73
321215.52 384463.67 51.45
321215.52 384373.67 51.21
321215.52 384283.67 51.36
321215.52 384193.67 52.37
321215.52 384103.67 53.59
321215.52 384013.67 54.64
321215.52 383923.67 55.78
321215.52 383833.67 57.79
321215.52 383743.67 62.59
321215.52 383653.67 72.31
321215.52 383563.67 86.85
321215.52 383473.67 103.52
321215.52 383383.67 118.83
321215.52 383293.67 130.92
321215.52 383203.67 143.47
321215.52 383113.67 162.50
321215.52 383023.67 193.16
321215.52 382933.67 236.42
321215.52 382843.67 278.95
321215.52 382753.67 309.75
321215.52 382663.67 330.67
321215.52 382573.67 337.89
321215.52 382483.67 332.86
321215.52 382393.67 317.40
321215.52 382303.67 289.92
321215.52 382213.67 251.67
321215.52 382123.67 209.21
321215.52 382033.67 170.18
321215.52 381943.67 141.65
321215.52 381853.67 128.34
321215.52 381763.67 127.30
321215.52 381673.67 132.19
321215.52 381583.67 142.73
321215.52 381493.67 159.70
321215.52 381403.67 172.81
321215.52 381313.67 174.44
321215.52 381223.67 174.77
321215.52 381133.67 185.79
321215.52 381043.67 209.13
321215.52 380953.67 233.74
321215.52 380863.67 250.11
321215.52 380773.67 265.63
321215.52 380683.67 291.27
321215.52 380593.67 320.97
321215.52 380503.67 335.93
321215.52 380413.67 332.38
321215.52 380323.67 325.60
321215.52 380233.67 322.08
321215.52 380143.67 314.47
321215.52 380053.67 297.48
321215.52 379963.67 276.78
321215.52 379873.67 259.87
321215.52 379783.67 253.70
321215.52 379693.67 256.76
321215.52 379603.67 259.03
321215.52 379513.67 258.56
321215.52 379423.67 263.77
321215.52 379333.67 271.23
321215.52 379243.67 265.88
321215.52 379153.67 247.49
321215.52 379063.67 230.09
321215.52 378973.67 215.94
321215.52 378883.67 200.87
321215.52 378793.67 183.23
321305.52 406783.67 36.06
321305.52 406693.67 36.37
321305.52 406603.67 38.02
321305.52 406513.67 40.77
321305.52 406423.67 43.18
321305.52 406333.67 42.34
321305.52 406243.67 38.44
321305.52 406153.67 35.93
321305.52 406063.67 35.44
321305.52 405973.67 35.28
321305.52 405883.67 35.02
321305.52 405793.67 34.83
321305.52 405703.67 34.75
321305.52 405613.67 34.64
321305.52 405523.67 34.37
321305.52 405433.67 34.20
321305.52 405343.67 34.44
321305.52 405253.67 35.06
321305.52 405163.67 34.98
321305.52 405073.67 33.28
321305.52 404983.67 30.84
321305.52 404893.67 28.79
321305.52 404803.67 27.21
321305.52 404713.67 25.98
321305.52 404623.67 25.46
321305.52 404533.67 25.75
321305.52 404443.67 26.24
321305.52 404353.67 26.66
321305.52 404263.67 26.89
321305.52 404173.67 26.95
321305.52 404083.67 26.76
321305.52 403993.67 26.33
321305.52 403903.67 26.33
321305.52 403813.67 27.58
321305.52 403723.67 29.55
321305.52 403633.67 31.07
321305.52 403543.67 31.81
321305.52 403453.67 31.89
321305.52 403363.67 31.62
321305.52 403273.67 31.64
321305.52 403183.67 32.40
321305.52 403093.67 33.47
321305.52 403003.67 34.21
321305.52 402913.67 34.63
321305.52 402823.67 34.74
321305.52 402733.67 34.71
321305.52 402643.67 34.70
321305.52 402553.67 34.46
321305.52 402463.67 34.09
321305.52 402373.67 34.21
321305.52 402283.67 34.58
321305.52 402193.67 34.51
321305.52 402103.67 34.46
321305.52 402013.67 34.75
321305.52 401923.67 35.11
321305.52 401833.67 35.17
321305.52 401743.67 34.99
321305.52 401653.67 34.66
321305.52 401563.67 34.25
321305.52 401473.67 33.96
321305.52 401383.67 33.82
321305.52 401293.67 33.64
321305.52 401203.67 33.18
321305.52 401113.67 32.40
321305.52 401023.67 31.78
321305.52 400933.67 31.86
321305.52 400843.67 32.26
321305.52 400753.67 32.37
321305.52 400663.67 32.35
321305.52 400573.67 32.35
321305.52 400483.67 32.32
321305.52 400393.67 32.23
321305.52 400303.67 32.14
321305.52 400213.67 32.14
321305.52 400123.67 32.41
321305.52 400033.67 33.17
321305.52 399943.67 34.37
321305.52 399853.67 35.59
321305.52 399763.67 36.57
321305.52 399673.67 37.50
321305.52 399583.67 38.90
321305.52 399493.67 40.84
321305.52 399403.67 42.82
321305.52 399313.67 45.27
321305.52 399223.67 47.01
321305.52 399133.67 46.13
321305.52 399043.67 45.09
321305.52 398953.67 45.35
321305.52 398863.67 45.17
321305.52 398773.67 44.71
321305.52 398683.67 45.08
321305.52 398593.67 45.61
321305.52 398503.67 45.37
321305.52 398413.67 45.71
321305.52 398323.67 46.92
321305.52 398233.67 48.73
321305.52 398143.67 50.92
321305.52 398053.67 54.96
321305.52 397963.67 63.24
321305.52 397873.67 74.67
321305.52 397783.67 84.52
321305.52 397693.67 91.44
321305.52 397603.67 96.68
321305.52 397513.67 98.78
321305.52 397423.67 97.29
321305.52 397333.67 89.32
321305.52 397243.67 76.53
321305.52 397153.67 65.59
321305.52 397063.67 56.58
321305.52 396973.67 50.23
321305.52 396883.67 47.16
321305.52 396793.67 45.69
321305.52 396703.67 44.58
321305.52 396613.67 43.87
321305.52 396523.67 44.55
321305.52 396433.67 46.14
321305.52 396343.67 46.12
321305.52 396253.67 43.96
321305.52 396163.67 41.55
321305.52 396073.67 40.42
321305.52 395983.67 43.08
321305.52 395893.67 52.64
321305.52 395803.67 65.33
321305.52 395713.67 71.93
321305.52 395623.67 67.42
321305.52 395533.67 54.07
321305.52 395443.67 41.45
321305.52 395353.67 35.49
321305.52 395263.67 33.76
321305.52 395173.67 32.95
321305.52 395083.67 32.10
321305.52 394993.67 31.38
321305.52 394903.67 30.76
321305.52 394813.67 30.26
321305.52 394723.67 29.99
321305.52 394633.67 29.83
321305.52 394543.67 29.61
321305.52 394453.67 29.30
321305.52 394363.67 29.13
321305.52 394273.67 29.14
321305.52 394183.67 29.21
321305.52 394093.67 29.31
321305.52 394003.67 29.39
321305.52 393913.67 29.34
321305.52 393823.67 29.26
321305.52 393733.67 29.32
321305.52 393643.67 29.54
321305.52 393553.67 29.87
321305.52 393463.67 30.15
321305.52 393373.67 30.44
321305.52 393283.67 30.93
321305.52 393193.67 31.83
321305.52 393103.67 32.90
321305.52 393013.67 33.89
321305.52 392923.67 34.29
321305.52 392833.67 33.71
321305.52 392743.67 33.25
321305.52 392653.67 33.39
321305.52 392563.67 34.42
321305.52 392473.67 37.09
321305.52 392383.67 41.31
321305.52 392293.67 45.77
321305.52 392203.67 49.52
321305.52 392113.67 51.46
321305.52 392023.67 50.66
321305.52 391933.67 48.45
321305.52 391843.67 46.64
321305.52 391753.67 46.42
321305.52 391663.67 48.75
321305.52 391573.67 53.42
321305.52 391483.67 59.46
321305.52 391393.67 67.53
321305.52 391303.67 76.50
321305.52 391213.67 83.91
321305.52 391123.67 90.69
321305.52 391033.67 96.57
321305.52 390943.67 100.25
321305.52 390853.67 101.93
321305.52 390763.67 105.95
321305.52 390673.67 114.12
321305.52 390583.67 125.50
321305.52 390493.67 139.99
321305.52 390403.67 153.50
321305.52 390313.67 155.86
321305.52 390223.67 145.65
321305.52 390133.67 130.53
321305.52 390043.67 116.74
321305.52 389953.67 110.10
321305.52 389863.67 108.35
321305.52 389773.67 106.85
321305.52 389683.67 107.05
321305.52 389593.67 112.84
321305.52 389503.67 123.91
321305.52 389413.67 130.43
321305.52 389323.67 121.94
321305.52 389233.67 105.54
321305.52 389143.67 94.27
321305.52 389053.67 89.78
321305.52 388963.67 89.87
321305.52 388873.67 93.99
321305.52 388783.67 98.43
321305.52 388693.67 97.57
321305.52 388603.67 92.22
321305.52 388513.67 88.28
321305.52 388423.67 87.29
321305.52 388333.67 88.88
321305.52 388243.67 90.13
321305.52 388153.67 88.22
321305.52 388063.67 89.09
321305.52 387973.67 101.21
321305.52 387883.67 123.92
321305.52 387793.67 146.66
321305.52 387703.67 160.01
321305.52 387613.67 158.27
321305.52 387523.67 146.07
321305.52 387433.67 131.89
321305.52 387343.67 118.82
321305.52 387253.67 106.53
321305.52 387163.67 99.48
321305.52 387073.67 99.43
321305.52 386983.67 97.69
321305.52 386893.67 91.41
321305.52 386803.67 84.33
321305.52 386713.67 79.39
321305.52 386623.67 75.95
321305.52 386533.67 73.54
321305.52 386443.67 71.84
321305.52 386353.67 70.41
321305.52 386263.67 68.77
321305.52 386173.67 66.73
321305.52 386083.67 64.29
321305.52 385993.67 62.07
321305.52 385903.67 60.89
321305.52 385813.67 60.73
321305.52 385723.67 60.77
321305.52 385633.67 60.14
321305.52 385543.67 58.43
321305.52 385453.67 56.28
321305.52 385363.67 55.11
321305.52 385273.67 54.82
321305.52 385183.67 54.92
321305.52 385093.67 54.60
321305.52 385003.67 53.51
321305.52 384913.67 52.45
321305.52 384823.67 51.71
321305.52 384733.67 51.09
321305.52 384643.67 50.67
321305.52 384553.67 50.38
321305.52 384463.67 50.11
321305.52 384373.67 49.85
321305.52 384283.67 49.88
321305.52 384193.67 50.79
321305.52 384103.67 52.11
321305.52 384013.67 53.14
321305.52 383923.67 54.23
321305.52 383833.67 55.95
321305.52 383743.67 60.30
321305.52 383653.67 69.49
321305.52 383563.67 81.89
321305.52 383473.67 94.23
321305.52 383383.67 105.99
321305.52 383293.67 118.40
321305.52 383203.67 134.43
321305.52 383113.67 156.44
321305.52 383023.67 186.95
321305.52 382933.67 227.18
321305.52 382843.67 268.93
321305.52 382753.67 302.09
321305.52 382663.67 320.50
321305.52 382573.67 320.21
321305.52 382483.67 310.50
321305.52 382393.67 296.51
321305.52 382303.67 272.34
321305.52 382213.67 240.35
321305.52 382123.67 207.58
321305.52 382033.67 175.73
321305.52 381943.67 145.95
321305.52 381853.67 126.89
321305.52 381763.67 122.82
321305.52 381673.67 129.50
321305.52 381583.67 141.37
321305.52 381493.67 154.57
321305.52 381403.67 162.49
321305.52 381313.67 161.75
321305.52 381223.67 162.17
321305.52 381133.67 173.48
321305.52 381043.67 193.23
321305.52 380953.67 211.75
321305.52 380863.67 227.36
321305.52 380773.67 249.83
321305.52 380683.67 282.46
321305.52 380593.67 313.93
321305.52 380503.67 329.98
321305.52 380413.67 329.10
321305.52 380323.67 325.94
321305.52 380233.67 324.81
321305.52 380143.67 316.32
321305.52 380053.67 298.01
321305.52 379963.67 279.13
321305.52 379873.67 268.65
321305.52 379783.67 270.13
321305.52 379693.67 276.66
321305.52 379603.67 277.63
321305.52 379513.67 273.51
321305.52 379423.67 272.58
321305.52 379333.67 272.79
321305.52 379243.67 262.72
321305.52 379153.67 242.28
321305.52 379063.67 223.83
321305.52 378973.67 210.37
321305.52 378883.67 198.41
321305.52 378793.67 185.68
321395.52 406783.67 37.69
321395.52 406693.67 40.06
321395.52 406603.67 45.06
321395.52 406513.67 49.32
321395.52 406423.67 50.04
321395.52 406333.67 46.67
321395.52 406243.67 41.28
321395.52 406153.67 38.85
321395.52 406063.67 39.23
321395.52 405973.67 39.47
321395.52 405883.67 38.21
321395.52 405793.67 36.26
321395.52 405703.67 35.06
321395.52 405613.67 34.52
321395.52 405523.67 34.18
321395.52 405433.67 34.20
321395.52 405343.67 35.08
321395.52 405253.67 36.85
321395.52 405163.67 37.68
321395.52 405073.67 36.52
321395.52 404983.67 34.78
321395.52 404893.67 32.99
321395.52 404803.67 31.13
321395.52 404713.67 29.34
321395.52 404623.67 27.59
321395.52 404533.67 26.34
321395.52 404443.67 25.93
321395.52 404353.67 26.29
321395.52 404263.67 26.59
321395.52 404173.67 26.63
321395.52 404083.67 26.38
321395.52 403993.67 26.04
321395.52 403903.67 26.13
321395.52 403813.67 27.18
321395.52 403723.67 29.12
321395.52 403633.67 30.96
321395.52 403543.67 31.90
321395.52 403453.67 31.95
321395.52 403363.67 31.50
321395.52 403273.67 31.18
321395.52 403183.67 31.33
321395.52 403093.67 32.11
321395.52 403003.67 33.24
321395.52 402913.67 34.10
321395.52 402823.67 34.33
321395.52 402733.67 34.38
321395.52 402643.67 34.69
321395.52 402553.67 34.86
321395.52 402463.67 34.70
321395.52 402373.67 34.76
321395.52 402283.67 35.02
321395.52 402193.67 35.02
321395.52 402103.67 35.07
321395.52 402013.67 35.35
321395.52 401923.67 35.61
321395.52 401833.67 35.58
321395.52 401743.67 35.39
321395.52 401653.67 35.12
321395.52 401563.67 34.68
321395.52 401473.67 34.23
321395.52 401383.67 33.98
321395.52 401293.67 33.79
321395.52 401203.67 33.48
321395.52 401113.67 32.87
321395.52 401023.67 32.18
321395.52 400933.67 32.00
321395.52 400843.67 32.26
321395.52 400753.67 32.40
321395.52 400663.67 32.47
321395.52 400573.67 32.52
321395.52 400483.67 32.48
321395.52 400393.67 32.37
321395.52 400303.67 32.27
321395.52 400213.67 32.22
321395.52 400123.67 32.33
321395.52 400033.67 32.84
321395.52 399943.67 33.70
321395.52 399853.67 34.47
321395.52 399763.67 35.04
321395.52 399673.67 35.39
321395.52 399583.67 35.62
321395.52 399493.67 36.30
321395.52 399403.67 37.97
321395.52 399313.67 40.49
321395.52 399223.67 42.37
321395.52 399133.67 42.60
321395.52 399043.67 42.71
321395.52 398953.67 43.30
321395.52 398863.67 42.92
321395.52 398773.67 42.35
321395.52 398683.67 42.95
321395.52 398593.67 43.79
321395.52 398503.67 43.83
321395.52 398413.67 44.30
321395.52 398323.67 45.40
321395.52 398233.67 46.93
321395.52 398143.67 49.99
321395.52 398053.67 57.75
321395.52 397963.67 70.94
321395.52 397873.67 83.99
321395.52 397783.67 89.58
321395.52 397693.67 87.94
321395.52 397603.67 86.27
321395.52 397513.67 88.85
321395.52 397423.67 94.56
321395.52 397333.67 94.51
321395.52 397243.67 84.97
321395.52 397153.67 71.65
321395.52 397063.67 58.34
321395.52 396973.67 49.73
321395.52 396883.67 46.25
321395.52 396793.67 44.96
321395.52 396703.67 44.18
321395.52 396613.67 44.08
321395.52 396523.67 45.46
321395.52 396433.67 46.16
321395.52 396343.67 44.31
321395.52 396253.67 42.14
321395.52 396163.67 40.44
321395.52 396073.67 39.63
321395.52 395983.67 42.88
321395.52 395893.67 52.41
321395.52 395803.67 61.02
321395.52 395713.67 59.63
321395.52 395623.67 50.30
321395.52 395533.67 40.33
321395.52 395443.67 34.57
321395.52 395353.67 32.41
321395.52 395263.67 31.64
321395.52 395173.67 31.08
321395.52 395083.67 30.50
321395.52 394993.67 30.12
321395.52 394903.67 29.87
321395.52 394813.67 29.76
321395.52 394723.67 29.81
321395.52 394633.67 29.83
321395.52 394543.67 29.72
321395.52 394453.67 29.49
321395.52 394363.67 29.29
321395.52 394273.67 29.19
321395.52 394183.67 29.19
321395.52 394093.67 29.29
321395.52 394003.67 29.34
321395.52 393913.67 29.26
321395.52 393823.67 29.16
321395.52 393733.67 29.17
321395.52 393643.67 29.31
321395.52 393553.67 29.57
321395.52 393463.67 29.87
321395.52 393373.67 30.18
321395.52 393283.67 30.53
321395.52 393193.67 31.32
321395.52 393103.67 32.56
321395.52 393013.67 33.35
321395.52 392923.67 33.56
321395.52 392833.67 33.66
321395.52 392743.67 33.37
321395.52 392653.67 33.18
321395.52 392563.67 33.78
321395.52 392473.67 35.78
321395.52 392383.67 39.43
321395.52 392293.67 44.11
321395.52 392203.67 48.66
321395.52 392113.67 51.37
321395.52 392023.67 51.23
321395.52 391933.67 49.12
321395.52 391843.67 46.82
321395.52 391753.67 45.82
321395.52 391663.67 46.83
321395.52 391573.67 50.01
321395.52 391483.67 54.40
321395.52 391393.67 59.25
321395.52 391303.67 64.15
321395.52 391213.67 70.16
321395.52 391123.67 79.51
321395.52 391033.67 89.96
321395.52 390943.67 96.80
321395.52 390853.67 96.81
321395.52 390763.67 95.53
321395.52 390673.67 100.48
321395.52 390583.67 108.15
321395.52 390493.67 117.33
321395.52 390403.67 129.36
321395.52 390313.67 135.19
321395.52 390223.67 128.94
321395.52 390133.67 117.86
321395.52 390043.67 106.89
321395.52 389953.67 97.62
321395.52 389863.67 93.66
321395.52 389773.67 93.35
321395.52 389683.67 95.30
321395.52 389593.67 102.07
321395.52 389503.67 113.19
321395.52 389413.67 119.08
321395.52 389323.67 111.53
321395.52 389233.67 97.27
321395.52 389143.67 86.81
321395.52 389053.67 82.75
321395.52 388963.67 81.63
321395.52 388873.67 82.51
321395.52 388783.67 84.53
321395.52 388693.67 83.58
321395.52 388603.67 80.27
321395.52 388513.67 79.26
321395.52 388423.67 80.88
321395.52 388333.67 84.18
321395.52 388243.67 85.09
321395.52 388153.67 82.27
321395.52 388063.67 83.14
321395.52 387973.67 95.88
321395.52 387883.67 118.95
321395.52 387793.67 140.94
321395.52 387703.67 149.92
321395.52 387613.67 140.91
321395.52 387523.67 125.78
321395.52 387433.67 113.76
321395.52 387343.67 101.64
321395.52 387253.67 89.66
321395.52 387163.67 85.06
321395.52 387073.67 88.44
321395.52 386983.67 89.15
321395.52 386893.67 84.21
321395.52 386803.67 80.48
321395.52 386713.67 78.68
321395.52 386623.67 77.21
321395.52 386533.67 75.68
321395.52 386443.67 74.12
321395.52 386353.67 72.37
321395.52 386263.67 69.96
321395.52 386173.67 66.96
321395.52 386083.67 64.06
321395.52 385993.67 62.00
321395.52 385903.67 61.89
321395.52 385813.67 64.01
321395.52 385723.67 65.48
321395.52 385633.67 64.02
321395.52 385543.67 60.78
321395.52 385453.67 57.29
321395.52 385363.67 55.58
321395.52 385273.67 56.05
321395.52 385183.67 57.99
321395.52 385093.67 58.59
321395.52 385003.67 55.89
321395.52 384913.67 52.79
321395.52 384823.67 51.50
321395.52 384733.67 50.73
321395.52 384643.67 50.07
321395.52 384553.67 49.65
321395.52 384463.67 49.19
321395.52 384373.67 48.78
321395.52 384283.67 48.69
321395.52 384193.67 49.45
321395.52 384103.67 50.77
321395.52 384013.67 51.76
321395.52 383923.67 52.80
321395.52 383833.67 54.50
321395.52 383743.67 58.43
321395.52 383653.67 66.64
321395.52 383563.67 77.34
321395.52 383473.67 87.69
321395.52 383383.67 98.64
321395.52 383293.67 111.77
321395.52 383203.67 128.45
321395.52 383113.67 149.65
321395.52 383023.67 177.65
321395.52 382933.67 214.01
321395.52 382843.67 253.21
321395.52 382753.67 285.45
321395.52 382663.67 300.04
321395.52 382573.67 293.30
321395.52 382483.67 279.08
321395.52 382393.67 264.76
321395.52 382303.67 243.68
321395.52 382213.67 217.44
321395.52 382123.67 193.81
321395.52 382033.67 173.17
321395.52 381943.67 148.07
321395.52 381853.67 127.44
321395.52 381763.67 122.72
321395.52 381673.67 131.36
321395.52 381583.67 141.95
321395.52 381493.67 147.04
321395.52 381403.67 148.67
321395.52 381313.67 148.85
321395.52 381223.67 152.01
321395.52 381133.67 162.71
321395.52 381043.67 178.50
321395.52 380953.67 195.97
321395.52 380863.67 217.75
321395.52 380773.67 248.37
321395.52 380683.67 282.91
321395.52 380593.67 309.04
321395.52 380503.67 318.96
321395.52 380413.67 315.47
321395.52 380323.67 313.32
321395.52 380233.67 315.79
321395.52 380143.67 310.92
321395.52 380053.67 296.35
321395.52 379963.67 282.73
321395.52 379873.67 279.64
321395.52 379783.67 286.19
321395.52 379693.67 290.90
321395.52 379603.67 287.21
321395.52 379513.67 280.88
321395.52 379423.67 277.28
321395.52 379333.67 272.46
321395.52 379243.67 259.03
321395.52 379153.67 240.26
321395.52 379063.67 223.75
321395.52 378973.67 211.73
321395.52 378883.67 204.27
321395.52 378793.67 200.47
321485.52 406783.67 40.07
321485.52 406693.67 45.73
321485.52 406603.67 54.53
321485.52 406513.67 58.17
321485.52 406423.67 54.48
321485.52 406333.67 49.15
321485.52 406243.67 45.82
321485.52 406153.67 47.28
321485.52 406063.67 51.30
321485.52 405973.67 52.82
321485.52 405883.67 49.15
321485.52 405793.67 42.95
321485.52 405703.67 38.40
321485.52 405613.67 35.61
321485.52 405523.67 34.66
321485.52 405433.67 36.22
321485.52 405343.67 40.77
321485.52 405253.67 46.55
321485.52 405163.67 48.82
321485.52 405073.67 47.11
321485.52 404983.67 44.76
321485.52 404893.67 41.55
321485.52 404803.67 37.51
321485.52 404713.67 33.62
321485.52 404623.67 30.21
321485.52 404533.67 27.83
321485.52 404443.67 26.51
321485.52 404353.67 26.28
321485.52 404263.67 26.36
321485.52 404173.67 26.38
321485.52 404083.67 26.23
321485.52 403993.67 25.99
321485.52 403903.67 25.99
321485.52 403813.67 26.68
321485.52 403723.67 28.35
321485.52 403633.67 30.27
321485.52 403543.67 31.34
321485.52 403453.67 31.55
321485.52 403363.67 31.38
321485.52 403273.67 31.28
321485.52 403183.67 31.29
321485.52 403093.67 31.51
321485.52 403003.67 32.04
321485.52 402913.67 32.56
321485.52 402823.67 32.78
321485.52 402733.67 33.18
321485.52 402643.67 34.01
321485.52 402553.67 34.61
321485.52 402463.67 34.74
321485.52 402373.67 34.84
321485.52 402283.67 35.08
321485.52 402193.67 35.21
321485.52 402103.67 35.29
321485.52 402013.67 35.45
321485.52 401923.67 35.57
321485.52 401833.67 35.51
321485.52 401743.67 35.38
321485.52 401653.67 35.24
321485.52 401563.67 34.88
321485.52 401473.67 34.48
321485.52 401383.67 34.29
321485.52 401293.67 34.11
321485.52 401203.67 33.86
321485.52 401113.67 33.44
321485.52 401023.67 32.79
321485.52 400933.67 32.32
321485.52 400843.67 32.26
321485.52 400753.67 32.34
321485.52 400663.67 32.42
321485.52 400573.67 32.48
321485.52 400483.67 32.51
321485.52 400393.67 32.51
321485.52 400303.67 32.46
321485.52 400213.67 32.38
321485.52 400123.67 32.41
321485.52 400033.67 32.79
321485.52 399943.67 33.42
321485.52 399853.67 33.79
321485.52 399763.67 33.91
321485.52 399673.67 34.02
321485.52 399583.67 34.12
321485.52 399493.67 34.68
321485.52 399403.67 36.23
321485.52 399313.67 38.26
321485.52 399223.67 39.77
321485.52 399133.67 40.59
321485.52 399043.67 41.18
321485.52 398953.67 41.38
321485.52 398863.67 40.75
321485.52 398773.67 40.45
321485.52 398683.67 41.54
321485.52 398593.67 42.90
321485.52 398503.67 43.51
321485.52 398413.67 44.00
321485.52 398323.67 44.77
321485.52 398233.67 46.21
321485.52 398143.67 50.37
321485.52 398053.67 60.75
321485.52 397963.67 75.02
321485.52 397873.67 84.29
321485.52 397783.67 83.29
321485.52 397693.67 76.85
321485.52 397603.67 74.54
321485.52 397513.67 79.40
321485.52 397423.67 88.61
321485.52 397333.67 92.57
321485.52 397243.67 84.77
321485.52 397153.67 70.29
321485.52 397063.67 56.51
321485.52 396973.67 48.48
321485.52 396883.67 45.34
321485.52 396793.67 44.27
321485.52 396703.67 43.63
321485.52 396613.67 43.59
321485.52 396523.67 44.78
321485.52 396433.67 44.63
321485.52 396343.67 42.34
321485.52 396253.67 40.92
321485.52 396163.67 39.81
321485.52 396073.67 38.89
321485.52 395983.67 40.50
321485.52 395893.67 45.19
321485.52 395803.67 47.34
321485.52 395713.67 43.09
321485.52 395623.67 36.85
321485.52 395533.67 32.96
321485.52 395443.67 31.48
321485.52 395353.67 30.85
321485.52 395263.67 30.45
321485.52 395173.67 30.09
321485.52 395083.67 29.77
321485.52 394993.67 29.65
321485.52 394903.67 29.62
321485.52 394813.67 29.75
321485.52 394723.67 29.99
321485.52 394633.67 30.05
321485.52 394543.67 29.92
321485.52 394453.67 29.73
321485.52 394363.67 29.54
321485.52 394273.67 29.32
321485.52 394183.67 29.17
321485.52 394093.67 29.17
321485.52 394003.67 29.19
321485.52 393913.67 29.15
321485.52 393823.67 29.12
321485.52 393733.67 29.13
321485.52 393643.67 29.20
321485.52 393553.67 29.36
321485.52 393463.67 29.63
321485.52 393373.67 29.91
321485.52 393283.67 30.18
321485.52 393193.67 30.82
321485.52 393103.67 31.87
321485.52 393013.67 32.34
321485.52 392923.67 32.53
321485.52 392833.67 33.32
321485.52 392743.67 33.49
321485.52 392653.67 33.14
321485.52 392563.67 33.30
321485.52 392473.67 34.57
321485.52 392383.67 37.55
321485.52 392293.67 42.46
321485.52 392203.67 47.69
321485.52 392113.67 50.75
321485.52 392023.67 51.16
321485.52 391933.67 49.56
321485.52 391843.67 47.14
321485.52 391753.67 45.45
321485.52 391663.67 45.36
321485.52 391573.67 47.35
321485.52 391483.67 50.37
321485.52 391393.67 53.29
321485.52 391303.67 56.69
321485.52 391213.67 62.41
321485.52 391123.67 72.11
321485.52 391033.67 84.05
321485.52 390943.67 92.54
321485.52 390853.67 91.82
321485.52 390763.67 87.54
321485.52 390673.67 90.07
321485.52 390583.67 94.62
321485.52 390493.67 99.20
321485.52 390403.67 108.39
321485.52 390313.67 115.51
321485.52 390223.67 114.45
321485.52 390133.67 110.41
321485.52 390043.67 102.65
321485.52 389953.67 90.58
321485.52 389863.67 83.39
321485.52 389773.67 82.29
321485.52 389683.67 85.57
321485.52 389593.67 94.23
321485.52 389503.67 105.43
321485.52 389413.67 108.15
321485.52 389323.67 99.03
321485.52 389233.67 87.43
321485.52 389143.67 79.57
321485.52 389053.67 76.78
321485.52 388963.67 75.70
321485.52 388873.67 74.66
321485.52 388783.67 74.34
321485.52 388693.67 73.51
321485.52 388603.67 72.36
321485.52 388513.67 73.36
321485.52 388423.67 76.61
321485.52 388333.67 80.32
321485.52 388243.67 80.39
321485.52 388153.67 77.30
321485.52 388063.67 78.34
321485.52 387973.67 90.86
321485.52 387883.67 113.08
321485.52 387793.67 133.14
321485.52 387703.67 138.20
321485.52 387613.67 125.35
321485.52 387523.67 108.68
321485.52 387433.67 97.88
321485.52 387343.67 88.67
321485.52 387253.67 78.82
321485.52 387163.67 75.12
321485.52 387073.67 78.73
321485.52 386983.67 80.03
321485.52 386893.67 76.59
321485.52 386803.67 75.85
321485.52 386713.67 77.28
321485.52 386623.67 78.16
321485.52 386533.67 77.24
321485.52 386443.67 75.15
321485.52 386353.67 72.65
321485.52 386263.67 69.72
321485.52 386173.67 67.02
321485.52 386083.67 64.93
321485.52 385993.67 63.10
321485.52 385903.67 63.48
321485.52 385813.67 67.52
321485.52 385723.67 69.95
321485.52 385633.67 67.34
321485.52 385543.67 62.89
321485.52 385453.67 58.62
321485.52 385363.67 56.55
321485.52 385273.67 57.63
321485.52 385183.67 61.33
321485.52 385093.67 63.91
321485.52 385003.67 61.52
321485.52 384913.67 57.89
321485.52 384823.67 56.62
321485.52 384733.67 54.10
321485.52 384643.67 50.78
321485.52 384553.67 49.22
321485.52 384463.67 48.52
321485.52 384373.67 48.05
321485.52 384283.67 47.85
321485.52 384193.67 48.20
321485.52 384103.67 49.24
321485.52 384013.67 50.26
321485.52 383923.67 51.27
321485.52 383833.67 53.11
321485.52 383743.67 57.25
321485.52 383653.67 65.50
321485.52 383563.67 76.22
321485.52 383473.67 86.84
321485.52 383383.67 98.65
321485.52 383293.67 113.01
321485.52 383203.67 129.87
321485.52 383113.67 149.06
321485.52 383023.67 174.39
321485.52 382933.67 209.87
321485.52 382843.67 248.34
321485.52 382753.67 276.64
321485.52 382663.67 285.08
321485.52 382573.67 271.88
321485.52 382483.67 252.69
321485.52 382393.67 235.52
321485.52 382303.67 215.75
321485.52 382213.67 193.92
321485.52 382123.67 175.25
321485.52 382033.67 161.77
321485.52 381943.67 144.37
321485.52 381853.67 126.96
321485.52 381763.67 122.96
321485.52 381673.67 132.01
321485.52 381583.67 140.16
321485.52 381493.67 139.12
321485.52 381403.67 137.22
321485.52 381313.67 140.17
321485.52 381223.67 147.50
321485.52 381133.67 159.12
321485.52 381043.67 175.04
321485.52 380953.67 196.53
321485.52 380863.67 224.98
321485.52 380773.67 257.63
321485.52 380683.67 285.20
321485.52 380593.67 300.62
321485.52 380503.67 304.23
321485.52 380413.67 298.82
321485.52 380323.67 295.73
321485.52 380233.67 300.30
321485.52 380143.67 300.87
321485.52 380053.67 293.23
321485.52 379963.67 286.57
321485.52 379873.67 288.41
321485.52 379783.67 296.54
321485.52 379693.67 299.77
321485.52 379603.67 294.02
321485.52 379513.67 286.95
321485.52 379423.67 282.50
321485.52 379333.67 275.52
321485.52 379243.67 260.95
321485.52 379153.67 244.08
321485.52 379063.67 230.08
321485.52 378973.67 221.72
321485.52 378883.67 219.42
321485.52 378793.67 221.19
321575.52 406783.67 41.98
321575.52 406693.67 50.14
321575.52 406603.67 61.67
321575.52 406513.67 65.82
321575.52 406423.67 61.65
321575.52 406333.67 56.77
321575.52 406243.67 55.66
321575.52 406153.67 61.96
321575.52 406063.67 69.99
321575.52 405973.67 72.34
321575.52 405883.67 66.35
321575.52 405793.67 56.04
321575.52 405703.67 46.70
321575.52 405613.67 39.80
321575.52 405523.67 38.60
321575.52 405433.67 44.74
321575.52 405343.67 56.76
321575.52 405253.67 67.99
321575.52 405163.67 70.73
321575.52 405073.67 67.61
321575.52 404983.67 63.26
321575.52 404893.67 55.82
321575.52 404803.67 46.45
321575.52 404713.67 38.41
321575.52 404623.67 32.78
321575.52 404533.67 29.54
321575.52 404443.67 27.90
321575.52 404353.67 27.28
321575.52 404263.67 26.79
321575.52 404173.67 26.35
321575.52 404083.67 26.07
321575.52 403993.67 25.91
321575.52 403903.67 25.88
321575.52 403813.67 26.20
321575.52 403723.67 27.35
321575.52 403633.67 29.04
321575.52 403543.67 30.28
321575.52 403453.67 30.95
321575.52 403363.67 31.44
321575.52 403273.67 31.84
321575.52 403183.67 31.96
321575.52 403093.67 31.80
321575.52 403003.67 31.56
321575.52 402913.67 31.39
321575.52 402823.67 31.35
321575.52 402733.67 31.73
321575.52 402643.67 32.42
321575.52 402553.67 32.83
321575.52 402463.67 32.82
321575.52 402373.67 32.90
321575.52 402283.67 33.24
321575.52 402193.67 33.50
321575.52 402103.67 33.61
321575.52 402013.67 33.77
321575.52 401923.67 33.92
321575.52 401833.67 33.94
321575.52 401743.67 33.91
321575.52 401653.67 33.87
321575.52 401563.67 33.82
321575.52 401473.67 33.96
321575.52 401383.67 34.27
321575.52 401293.67 34.33
321575.52 401203.67 34.23
321575.52 401113.67 33.96
321575.52 401023.67 33.37
321575.52 400933.67 32.70
321575.52 400843.67 32.33
321575.52 400753.67 32.23
321575.52 400663.67 32.24
321575.52 400573.67 32.30
321575.52 400483.67 32.40
321575.52 400393.67 32.50
321575.52 400303.67 32.51
321575.52 400213.67 32.39
321575.52 400123.67 32.31
321575.52 400033.67 32.57
321575.52 399943.67 33.05
321575.52 399853.67 33.23
321575.52 399763.67 33.10
321575.52 399673.67 33.06
321575.52 399583.67 33.10
321575.52 399493.67 33.62
321575.52 399403.67 35.01
321575.52 399313.67 36.78
321575.52 399223.67 38.26
321575.52 399133.67 39.13
321575.52 399043.67 39.46
321575.52 398953.67 39.49
321575.52 398863.67 39.67
321575.52 398773.67 41.09
321575.52 398683.67 43.25
321575.52 398593.67 44.55
321575.52 398503.67 44.89
321575.52 398413.67 45.18
321575.52 398323.67 45.81
321575.52 398233.67 47.32
321575.52 398143.67 52.03
321575.52 398053.67 62.23
321575.52 397963.67 73.41
321575.52 397873.67 77.54
321575.52 397783.67 73.29
321575.52 397693.67 67.36
321575.52 397603.67 67.60
321575.52 397513.67 74.38
321575.52 397423.67 83.63
321575.52 397333.67 85.35
321575.52 397243.67 74.96
321575.52 397153.67 61.43
321575.52 397063.67 51.85
321575.52 396973.67 46.87
321575.52 396883.67 44.57
321575.52 396793.67 43.48
321575.52 396703.67 42.62
321575.52 396613.67 42.16
321575.52 396523.67 42.50
321575.52 396433.67 42.09
321575.52 396343.67 40.47
321575.52 396253.67 39.36
321575.52 396163.67 38.43
321575.52 396073.67 37.54
321575.52 395983.67 37.25
321575.52 395893.67 37.16
321575.52 395803.67 35.91
321575.52 395713.67 33.66
321575.52 395623.67 31.74
321575.52 395533.67 30.80
321575.52 395443.67 30.46
321575.52 395353.67 30.17
321575.52 395263.67 29.90
321575.52 395173.67 29.71
321575.52 395083.67 29.61
321575.52 394993.67 29.62
321575.52 394903.67 29.70
321575.52 394813.67 29.84
321575.52 394723.67 29.97
321575.52 394633.67 29.87
321575.52 394543.67 29.61
321575.52 394453.67 29.32
321575.52 394363.67 29.03
321575.52 394273.67 28.74
321575.52 394183.67 28.56
321575.52 394093.67 28.64
321575.52 394003.67 28.78
321575.52 393913.67 28.85
321575.52 393823.67 28.94
321575.52 393733.67 29.05
321575.52 393643.67 29.18
321575.52 393553.67 29.31
321575.52 393463.67 29.49
321575.52 393373.67 29.68
321575.52 393283.67 29.90
321575.52 393193.67 30.37
321575.52 393103.67 31.16
321575.52 393013.67 31.62
321575.52 392923.67 31.72
321575.52 392833.67 32.31
321575.52 392743.67 32.96
321575.52 392653.67 33.02
321575.52 392563.67 33.05
321575.52 392473.67 33.88
321575.52 392383.67 36.32
321575.52 392293.67 40.92
321575.52 392203.67 46.05
321575.52 392113.67 49.24
321575.52 392023.67 50.39
321575.52 391933.67 49.63
321575.52 391843.67 47.33
321575.52 391753.67 45.15
321575.52 391663.67 44.36
321575.52 391573.67 45.33
321575.52 391483.67 47.53
321575.52 391393.67 50.53
321575.52 391303.67 54.46
321575.52 391213.67 59.95
321575.52 391123.67 69.08
321575.52 391033.67 82.07
321575.52 390943.67 92.21
321575.52 390853.67 90.95
321575.52 390763.67 83.27
321575.52 390673.67 81.56
321575.52 390583.67 83.10
321575.52 390493.67 84.16
321575.52 390403.67 88.91
321575.52 390313.67 95.44
321575.52 390223.67 100.16
321575.52 390133.67 104.98
321575.52 390043.67 102.13
321575.52 389953.67 88.57
321575.52 389863.67 77.68
321575.52 389773.67 74.05
321575.52 389683.67 77.08
321575.52 389593.67 86.23
321575.52 389503.67 96.98
321575.52 389413.67 98.27
321575.52 389323.67 88.79
321575.52 389233.67 78.53
321575.52 389143.67 72.68
321575.52 389053.67 71.19
321575.52 388963.67 70.66
321575.52 388873.67 69.01
321575.52 388783.67 67.20
321575.52 388693.67 66.37
321575.52 388603.67 67.05
321575.52 388513.67 69.43
321575.52 388423.67 72.86
321575.52 388333.67 75.59
321575.52 388243.67 75.27
321575.52 388153.67 72.94
321575.52 388063.67 74.50
321575.52 387973.67 86.61
321575.52 387883.67 107.59
321575.52 387793.67 124.41
321575.52 387703.67 125.28
321575.52 387613.67 112.45
321575.52 387523.67 98.13
321575.52 387433.67 87.82
